ply
format ascii 1.0
comment Jaulian Buddhist monastery ruins, Taxila
comment PMW Internship 2026, AI-Based 3D Reconstruction Track
comment Monocular heuristic reconstruction (not multi-view SfM), see README for method and limitations
element vertex 1477
property float x
property float y
property float z
property uchar red
property uchar green
property uchar blue
end_header
-0.2476 -0.4599 3.5375 117 68 36
-0.2230 -0.4459 3.4303 161 115 82
-0.2112 -0.4576 3.5198 27 7 0
-0.1944 -0.4595 3.5345 37 12 5
-0.1773 -0.4610 3.5462 44 17 10
-0.1595 -0.4608 3.5445 48 18 8
-0.1410 -0.4582 3.5248 26 6 0
-0.1166 -0.4331 3.3312 141 104 75
-0.1037 -0.4495 3.4577 155 113 71
-0.0864 -0.4494 3.4572 159 123 89
-0.0694 -0.4513 3.4716 123 88 68
-0.0514 -0.4454 3.4264 119 86 53
-0.0345 -0.4489 3.4534 105 68 39
-0.0177 -0.4604 3.5412 88 47 19
0.0000 -0.4542 3.4939 161 125 91
0.0170 -0.4430 3.4080 22 0 0
0.0355 -0.4610 3.5462 41 21 10
0.0532 -0.4610 3.5462 48 21 10
0.0712 -0.4626 3.5586 38 21 14
0.0879 -0.4573 3.5177 25 10 3
0.0985 -0.4268 3.2828 136 110 87
0.1212 -0.4500 3.4618 134 95 62
0.1397 -0.4540 3.4920 136 101 71
0.1597 -0.4614 3.5494 81 46 24
0.1760 -0.4576 3.5203 110 70 44
0.1920 -0.4537 3.4904 123 89 62
0.2118 -0.4589 3.5303 130 99 71
0.2290 -0.4579 3.5227 89 58 29
0.2324 -0.4316 3.3198 44 12 0
0.2663 -0.4616 3.5510 55 24 6
0.2840 -0.4615 3.5502 50 22 11
0.2992 -0.4576 3.5202 45 20 13
0.3116 -0.4501 3.4624 44 22 11
0.3242 -0.4436 3.4122 123 104 87
0.3496 -0.4545 3.4961 46 37 20
0.3414 -0.4227 3.2513 55 63 52
0.3603 -0.4258 3.2755 3 24 17
0.3946 -0.4461 3.4317 13 35 32
0.4236 -0.4589 3.5300 0 8 1
0.4324 -0.4497 3.4595 92 90 78
0.4452 -0.4452 3.4246 76 58 46
0.4612 -0.4441 3.4162 71 47 23
0.4800 -0.4457 3.4283 77 53 29
0.4868 -0.4364 3.3571 48 27 6
0.5112 -0.4430 3.4079 30 15 0
0.5252 -0.4405 3.3885 71 59 43
0.5341 -0.4340 3.3382 117 105 93
0.5561 -0.4381 3.3703 91 79 67
0.5894 -0.4508 3.4673 66 52 43
0.6161 -0.4576 3.5203 49 40 31
0.6246 -0.4511 3.4700 78 70 57
0.6537 -0.4594 3.5336 77 65 51
0.6661 -0.4557 3.5056 83 66 48
0.6775 -0.4517 3.4743 62 45 25
0.6903 -0.4487 3.4514 46 29 9
0.6910 -0.4382 3.3705 64 48 32
0.7236 -0.4480 3.4458 39 26 10
0.7352 -0.4446 3.4197 26 3 0
0.7436 -0.4394 3.3801 112 89 73
0.7853 -0.4537 3.4902 77 60 44
0.8019 -0.4533 3.4866 98 86 72
0.8153 -0.4510 3.4696 73 65 52
0.7939 -0.4300 3.3079 78 70 59
0.8434 -0.4475 3.4426 69 56 47
0.8579 -0.4461 3.4314 35 18 10
0.8576 -0.4372 3.3631 20 6 0
0.9119 -0.4559 3.5072 124 110 97
0.9080 -0.4454 3.4264 114 102 90
0.9507 -0.4577 3.5209 88 76 64
0.9640 -0.4557 3.5054 92 80 68
0.9621 -0.4467 3.4362 124 110 97
0.9964 -0.4545 3.4962 86 70 55
0.9992 -0.4479 3.4455 55 37 23
1.0285 -0.4533 3.4866 111 121 133
1.0505 -0.4552 3.5018 40 34 36
1.0741 -0.4578 3.5215 36 22 11
1.0610 -0.4449 3.4227 92 69 53
1.0952 -0.4520 3.4768 69 54 49
1.1033 -0.4482 3.4478 61 65 76
1.0942 -0.4377 3.3667 76 68 66
1.0963 -0.4319 3.3220 78 66 54
1.1596 -0.4500 3.4614 114 107 91
1.2032 -0.4600 3.5387 75 53 39
1.1466 -0.4320 3.3234 108 81 62
1.2031 -0.4469 3.4375 125 97 75
1.2260 -0.4490 3.4535 78 33 12
1.2587 -0.4545 3.4964 83 36 18
1.2695 -0.4521 3.4780 97 62 42
1.2762 -0.4484 3.4491 63 24 9
1.2880 -0.4465 3.4346 125 107 93
1.3316 -0.4555 3.5042 113 101 87
1.2737 -0.4301 3.3084 99 86 70
1.3417 -0.4472 3.4401 105 93 81
1.3952 -0.4592 3.5322 107 96 90
1.3864 -0.4506 3.4659 136 123 117
1.3837 -0.4441 3.4165 135 117 107
1.4088 -0.4467 3.4361 118 92 79
1.4272 -0.4471 3.4390 69 41 20
1.4464 -0.4477 3.4437 106 81 61
1.4924 -0.4565 3.5114 35 16 0
1.5108 -0.4568 3.5135 41 32 17
1.4350 -0.4289 3.2989 99 95 83
1.5035 -0.4442 3.4171 91 93 80
1.4769 -0.4314 3.3188 170 176 162
1.4847 -0.4289 3.2993 125 131 117
1.4957 -0.4274 3.2874 91 90 70
1.5265 -0.4314 3.3184 74 73 53
1.5959 -0.4462 3.4320 83 86 69
1.6368 -0.4527 3.4825 40 44 30
1.6511 -0.4519 3.4760 94 96 83
1.7011 -0.4607 3.5440 88 85 70
1.6900 -0.4530 3.4845 151 138 122
1.6758 -0.4446 3.4201 125 106 89
1.6954 -0.4453 3.4251 105 84 67
1.7400 -0.4524 3.4801 94 72 58
1.7309 -0.4456 3.4275 62 44 30
1.7718 -0.4516 3.4742 98 84 73
1.8067 -0.4561 3.5082 91 78 70
1.7924 -0.4481 3.4468 121 110 104
1.8424 -0.4562 3.5092 54 45 38
1.7907 -0.4392 3.3786 101 92 85
1.8560 -0.4510 3.4691 115 106 99
1.8145 -0.4368 3.3601 102 93 84
1.8601 -0.4437 3.4131 71 62 53
1.9360 -0.4576 3.5201 32 23 14
1.9358 -0.4534 3.4880 94 84 82
1.9648 -0.4561 3.5086 43 33 32
1.9537 -0.4495 3.4579 69 59 57
2.0062 -0.4576 3.5197 97 88 79
2.0135 -0.4552 3.5017 79 70 63
2.0357 -0.4563 3.5098 80 73 67
1.9929 -0.4429 3.4067 106 98 95
2.0507 -0.4518 3.4758 57 48 41
2.1009 -0.4590 3.5309 56 42 33
1.9962 -0.4325 3.3271 90 73 63
2.0024 -0.4303 3.3097 128 115 106
2.1331 -0.4546 3.4969 74 65 58
2.1613 -0.4569 3.5144 46 42 31
2.1862 -0.4584 3.5261 84 80 69
-2.0404 -0.4407 3.2646 108 90 66
-2.1845 -0.4757 3.5234 17 0 0
-2.0640 -0.4531 3.3561 195 129 81
-2.1071 -0.4663 3.4542 153 78 46
-2.0751 -0.4669 3.4585 185 113 29
-1.9956 -0.4566 3.3823 142 76 28
-2.0116 -0.4642 3.4386 150 87 44
-1.9668 -0.4578 3.3910 146 75 29
-2.0091 -0.4717 3.4940 204 114 52
-1.8459 -0.4372 3.2384 131 84 54
-1.9679 -0.4702 3.4829 97 55 30
-1.9404 -0.4678 3.4650 94 62 41
-1.9408 -0.4721 3.4970 45 25 14
-1.9348 -0.4749 3.5178 52 26 11
-1.9027 -0.4713 3.4911 56 34 20
-1.8112 -0.4528 3.3542 114 83 62
-1.7669 -0.4459 3.3026 127 98 82
-1.7693 -0.4507 3.3384 140 109 91
-1.8126 -0.4661 3.4526 174 114 78
-1.8142 -0.4710 3.4888 205 129 79
-1.7658 -0.4629 3.4287 142 65 13
-1.7644 -0.4717 3.4938 193 110 40
-1.6887 -0.4652 3.4463 189 106 38
-1.6906 -0.4706 3.4858 203 105 8
-1.6589 -0.4666 3.4560 202 106 48
-1.6746 -0.4759 3.5255 185 78 24
-1.4765 -0.4287 3.1752 167 108 66
-1.5796 -0.4636 3.4339 42 19 13
-1.5850 -0.4703 3.4835 49 34 31
-1.5666 -0.4700 3.4813 88 55 36
-1.5559 -0.4720 3.4964 186 142 115
-1.5159 -0.4651 3.4453 92 55 29
-1.4512 -0.4504 3.3361 85 31 0
-1.4801 -0.4701 3.4825 170 60 0
-1.4413 -0.4688 3.4729 201 91 12
-1.1961 -0.4140 3.0668 111 75 53
-1.2802 -0.4489 3.3251 63 29 19
-1.3160 -0.4675 3.4632 128 93 61
-1.2871 -0.4634 3.4324 120 83 56
-1.2977 -0.4735 3.5072 91 50 32
-1.2212 -0.4517 3.3459 171 87 15
-1.2581 -0.4718 3.4947 187 87 1
-1.2260 -0.4729 3.5030 202 106 22
-1.0568 -0.4259 3.1547 116 64 25
-1.1457 -0.4687 3.4719 68 32 6
-1.1226 -0.4663 3.4541 91 44 28
-1.0658 -0.4496 3.3306 106 44 19
-1.0637 -0.4708 3.4875 194 102 35
-0.9303 -0.4257 3.1536 109 62 10
-1.0053 -0.4680 3.4664 117 66 37
-0.9843 -0.4663 3.4537 103 37 2
-0.9231 -0.4616 3.4190 186 95 25
-0.8605 -0.4384 3.2473 156 102 58
-0.8722 -0.4529 3.3547 118 66 27
-0.8884 -0.4703 3.4840 100 39 0
-0.8661 -0.4677 3.4643 105 43 2
-0.8452 -0.4657 3.4498 120 66 30
-0.8295 -0.4666 3.4563 94 43 12
-0.8131 -0.4671 3.4599 90 40 7
-0.7890 -0.4631 3.4306 88 34 0
-0.7821 -0.4692 3.4759 103 58 27
-0.7564 -0.4641 3.4381 124 74 49
-0.7395 -0.4643 3.4396 92 38 14
-0.7215 -0.4638 3.4358 96 52 27
-0.6648 -0.4378 3.2428 167 140 113
-0.7028 -0.4744 3.5141 173 154 124
-0.6286 -0.4466 3.3085 171 121 86
-0.5999 -0.4378 3.2430 51 17 0
-0.5851 -0.4388 3.2507 116 81 62
-0.5708 -0.4404 3.2619 121 93 72
-0.5574 -0.4427 3.2789 140 113 86
-0.5344 -0.4372 3.2387 178 133 100
-0.5587 -0.4714 3.4916 138 90 54
-0.5428 -0.4727 3.5018 110 74 38
-0.5298 -0.4769 3.5323 101 59 35
-0.5080 -0.4730 3.5036 142 98 69
-0.4850 -0.4677 3.4645 86 47 14
-0.4537 -0.4537 3.3604 127 76 47
-0.4415 -0.4585 3.3964 153 97 60
-0.4296 -0.4640 3.4370 41 3 0
-0.4220 -0.4748 3.5168 30 2 0
-0.4070 -0.4777 3.5388 45 9 0
-0.3876 -0.4757 3.5241 50 18 5
-0.3678 -0.4729 3.5032 49 26 12
-0.3277 -0.4424 3.2768 92 64 43
-0.3284 -0.4666 3.4564 112 75 48
-0.3156 -0.4734 3.5067 137 92 63
-0.2893 -0.4595 3.4037 117 69 46
-0.2774 -0.4680 3.4670 124 77 57
-0.2612 -0.4702 3.4831 143 95 72
-0.2420 -0.4667 3.4571 147 98 65
-0.2169 -0.4505 3.3374 170 124 90
-0.2118 -0.4765 3.5296 26 4 0
-0.1942 -0.4766 3.5306 38 8 0
-0.1768 -0.4772 3.5351 48 11 5
-0.1583 -0.4748 3.5171 54 14 4
-0.1409 -0.4757 3.5235 25 0 0
-0.1146 -0.4421 3.2748 158 119 86
-0.1027 -0.4620 3.4219 153 112 68
-0.0864 -0.4668 3.4578 121 86 56
-0.0701 -0.4730 3.5036 107 74 55
-0.0523 -0.4705 3.4850 118 87 56
-0.0348 -0.4700 3.4815 135 100 72
-0.0176 -0.4761 3.5269 131 92 63
0.0000 -0.4698 3.4803 178 142 106
0.0170 -0.4602 3.4086 26 0 0
0.0349 -0.4713 3.4913 36 13 0
0.0517 -0.4657 3.4494 31 2 0
0.0700 -0.4726 3.5007 31 8 0
0.0863 -0.4658 3.4505 26 7 0
0.0978 -0.4399 3.2587 102 74 52
0.1202 -0.4635 3.4332 149 113 81
0.1407 -0.4748 3.5171 113 79 52
0.1505 -0.4514 3.3436 113 82 62
0.1717 -0.4635 3.4331 130 94 72
0.1897 -0.4656 3.4486 136 109 88
0.2076 -0.4670 3.4594 91 67 43
0.2245 -0.4663 3.4539 117 91 66
0.2259 -0.4357 3.2274 49 21 0
0.2469 -0.4444 3.2920 56 27 11
0.2546 -0.4296 3.1819 77 48 40
0.2670 -0.4240 3.1409 72 47 40
0.2882 -0.4324 3.2027 53 31 20
0.3261 -0.4634 3.4324 98 85 69
0.3510 -0.4738 3.5099 61 53 42
0.3489 -0.4486 3.3231 98 96 97
0.3571 -0.4383 3.2466 115 115 123
0.3609 -0.4237 3.1387 97 97 107
0.3705 -0.4168 3.0877 62 59 66
0.3972 -0.4289 3.1773 31 21 19
0.4465 -0.4637 3.4345 126 112 101
0.4705 -0.4705 3.4849 128 94 69
0.4881 -0.4707 3.4867 140 103 76
0.4876 -0.4540 3.3626 107 73 48
0.5076 -0.4568 3.3840 87 55 34
0.5420 -0.4720 3.4965 36 5 0
0.5471 -0.4616 3.4193 99 66 51
0.5625 -0.4602 3.4089 72 36 22
0.5814 -0.4617 3.4202 71 33 20
0.6007 -0.4634 3.4323 66 32 22
0.6154 -0.4615 3.4189 57 23 11
0.6529 -0.4764 3.5292 76 37 20
0.6707 -0.4766 3.5300 70 29 7
0.6800 -0.4708 3.4872 92 50 26
0.7003 -0.4727 3.5013 89 47 23
0.7113 -0.4684 3.4698 77 39 18
0.7314 -0.4702 3.4826 72 37 17
0.7496 -0.4707 3.4865 74 42 21
0.7654 -0.4697 3.4791 53 26 5
0.7780 -0.4668 3.4578 82 61 42
0.8037 -0.4717 3.4944 92 79 63
0.8193 -0.4707 3.4865 84 76 63
0.7925 -0.4458 3.3020 67 59 48
0.8324 -0.4587 3.3976 56 43 34
0.8492 -0.4586 3.3969 27 12 5
0.8428 -0.4462 3.3049 52 38 25
0.9041 -0.4694 3.4773 102 89 73
0.9284 -0.4729 3.5033 55 43 31
0.9467 -0.4734 3.5064 126 113 104
0.9553 -0.4690 3.4739 104 91 83
0.9280 -0.4474 3.3141 112 98 87
0.9962 -0.4719 3.4955 58 42 27
1.0174 -0.4736 3.5081 72 55 37
1.0415 -0.4766 3.5306 122 132 142
1.0457 -0.4706 3.4858 50 44 46
1.0685 -0.4729 3.5032 22 5 0
1.0417 -0.4537 3.3605 60 34 19
1.0467 -0.4486 3.3229 70 52 48
1.1040 -0.4658 3.4500 61 63 75
1.1043 -0.4587 3.3980 98 90 88
1.0905 -0.4461 3.3046 90 78 66
1.1426 -0.4605 3.4109 141 132 115
1.1848 -0.4704 3.4846 88 65 49
1.1638 -0.4554 3.3732 129 102 83
1.2094 -0.4665 3.4556 114 86 64
1.2435 -0.4729 3.5028 104 59 38
1.2636 -0.4738 3.5099 75 30 11
1.2541 -0.4638 3.4359 105 72 53
1.2999 -0.4743 3.5132 70 32 19
1.2860 -0.4629 3.4293 151 126 106
1.2900 -0.4583 3.3946 85 67 47
1.2694 -0.4451 3.2972 134 117 101
1.3102 -0.4535 3.3594 77 63 54
1.3534 -0.4625 3.4262 46 37 32
1.4011 -0.4729 3.5028 77 66 64
1.3878 -0.4626 3.4267 54 35 28
1.4000 -0.4610 3.4147 97 69 57
1.4313 -0.4656 3.4488 102 83 69
1.4544 -0.4675 3.4629 65 48 38
1.4657 -0.4656 3.4486 106 88 78
1.5140 -0.4753 3.5209 84 62 51
1.4261 -0.4426 3.2785 165 137 125
1.4794 -0.4539 3.3623 157 121 105
1.4741 -0.4472 3.3125 157 115 91
1.5107 -0.4532 3.3571 176 129 103
1.5172 -0.4502 3.3345 147 99 79
1.5373 -0.4512 3.3420 124 81 65
1.5897 -0.4615 3.4188 164 132 121
1.5851 -0.4553 3.3725 192 172 163
1.5929 -0.4527 3.3535 57 44 36
1.6641 -0.4680 3.4669 115 105 96
1.6954 -0.4719 3.4957 150 136 127
1.7178 -0.4733 3.5057 111 95 82
1.6757 -0.4570 3.3852 91 72 57
1.7313 -0.4675 3.4626 139 120 105
1.7271 -0.4617 3.4200 109 93 80
1.7373 -0.4599 3.4064 111 98 89
1.8128 -0.4752 3.5200 59 49 40
1.8163 -0.4715 3.4929 81 72 65
1.8216 -0.4684 3.4697 63 54 47
1.8249 -0.4648 3.4431 82 73 66
1.8692 -0.4717 3.4938 82 75 69
1.8471 -0.4618 3.4206 92 85 79
1.9244 -0.4767 3.5310 120 113 105
1.8718 -0.4594 3.4032 122 115 109
1.8985 -0.4618 3.4208 91 83 80
1.9790 -0.4771 3.5339 103 95 93
1.9281 -0.4607 3.4126 95 88 82
2.0049 -0.4748 3.5173 96 90 78
1.9997 -0.4695 3.4778 84 76 63
2.0235 -0.4710 3.4888 53 44 35
2.0012 -0.4618 3.4209 68 61 55
2.0733 -0.4744 3.5141 82 71 69
2.0653 -0.4686 3.4711 42 27 20
2.1055 -0.4737 3.5092 126 112 103
2.1236 -0.4739 3.5101 88 79 70
2.1443 -0.4746 3.5153 81 78 71
2.1640 -0.4750 3.5188 66 61 55
2.1322 -0.4643 3.4390 53 45 42
-2.1927 -0.4912 3.5084 102 55 27
-2.1003 -0.4743 3.3875 164 120 91
-2.0782 -0.4731 3.3792 130 79 34
-2.0938 -0.4805 3.4324 104 45 11
-2.0477 -0.4739 3.3847 123 57 25
-2.0778 -0.4848 3.4629 130 59 15
-1.9567 -0.4604 3.2886 132 56 4
-2.0392 -0.4839 3.4563 194 113 50
-2.0095 -0.4851 3.4647 177 99 50
-1.9434 -0.4732 3.3798 200 124 75
-1.9482 -0.4785 3.4179 152 83 16
-1.7747 -0.4397 3.1410 118 76 26
-1.9281 -0.4820 3.4430 60 41 34
-1.9337 -0.4878 3.4842 52 30 32
-1.9000 -0.4836 3.4546 32 13 6
-1.8977 -0.4875 3.4820 41 24 14
-1.8478 -0.4791 3.4219 77 55 34
-1.8599 -0.4867 3.4764 59 39 15
-1.8246 -0.4820 3.4427 79 62 44
-1.7243 -0.4598 3.2844 139 80 64
-1.7853 -0.4901 3.5006 197 94 19
-1.7703 -0.4908 3.5056 204 101 32
-1.7597 -0.4927 3.5194 204 98 24
-1.7252 -0.4879 3.4852 195 97 24
-1.7091 -0.4883 3.4880 205 107 32
-1.6949 -0.4892 3.4945 186 84 0
-1.6070 -0.4787 3.4193 204 96 0
-1.4520 -0.4372 3.1225 191 130 75
-1.5950 -0.4854 3.4673 46 17 3
-1.5963 -0.4912 3.5084 50 32 32
-1.5486 -0.4818 3.4414 147 115 100
-1.5349 -0.4829 3.4493 105 65 40
-1.5108 -0.4807 3.4336 113 77 61
-1.4417 -0.4640 3.3142 130 72 34
-1.2003 -0.4309 3.0778 153 103 76
-1.2463 -0.4532 3.2371 69 30 15
-1.3015 -0.4795 3.4250 128 78 55
-1.2985 -0.4848 3.4626 156 104 82
-1.2938 -0.4895 3.4968 157 114 82
-1.2430 -0.4902 3.5015 191 112 45
-1.2158 -0.4863 3.4736 205 123 47
-1.0622 -0.4439 3.1707 132 77 46
-1.1244 -0.4770 3.4074 77 30 12
-1.1200 -0.4824 3.4460 121 74 54
-1.0674 -0.4670 3.3356 110 70 45
-1.0534 -0.4757 3.3980 201 119 43
-0.9062 -0.4300 3.0718 106 44 0
-0.9885 -0.4772 3.4085 120 59 28
-0.9624 -0.4728 3.3770 92 26 0
-0.9541 -0.4857 3.4695 205 116 48
-0.9398 -0.4873 3.4809 196 98 25
-0.9070 -0.4884 3.4883 184 99 32
-0.8897 -0.4885 3.4891 162 74 10
-0.8629 -0.4832 3.4516 168 80 17
-0.8464 -0.4837 3.4548 136 50 0
-0.8363 -0.4878 3.4845 150 65 8
-0.8213 -0.4893 3.4949 132 52 0
-0.7961 -0.4846 3.4613 152 76 26
-0.7812 -0.4861 3.4719 137 69 20
-0.7532 -0.4793 3.4237 103 41 20
-0.6778 -0.4413 3.1524 116 70 47
-0.7102 -0.4734 3.3817 204 161 119
-0.6925 -0.4847 3.4623 196 129 86
-0.6335 -0.4794 3.4244 106 61 28
-0.6115 -0.4756 3.3975 71 39 18
-0.5957 -0.4766 3.4040 105 76 58
-0.5369 -0.4421 3.1582 73 37 11
-0.5155 -0.4374 3.1240 163 110 76
-0.5465 -0.4782 3.4156 93 34 0
-0.5290 -0.4778 3.4132 88 35 3
-0.5111 -0.4770 3.4070 97 52 29
-0.4896 -0.4727 3.3768 103 63 38
-0.4797 -0.4797 3.4267 107 54 22
-0.4649 -0.4821 3.4434 121 62 28
-0.4422 -0.4762 3.4014 120 65 35
-0.4376 -0.4901 3.5010 184 146 123
-0.4170 -0.4865 3.4752 157 113 86
-0.3945 -0.4802 3.4301 156 115 87
-0.3813 -0.4852 3.4660 138 107 87
-0.3619 -0.4825 3.4465 116 86 62
-0.3477 -0.4868 3.4772 146 115 87
-0.3238 -0.4772 3.4088 81 46 18
-0.3088 -0.4803 3.4310 126 87 58
-0.2983 -0.4912 3.5089 162 121 93
-0.2808 -0.4915 3.5105 128 86 61
-0.2592 -0.4838 3.4559 89 45 18
-0.2423 -0.4846 3.4613 105 60 29
-0.2281 -0.4913 3.5096 145 104 72
-0.2012 -0.4694 3.3528 166 134 109
-0.1848 -0.4705 3.3609 152 121 100
-0.1700 -0.4761 3.4005 160 129 111
-0.1504 -0.4680 3.3426 119 86 69
-0.1358 -0.4754 3.3955 165 132 113
-0.1219 -0.4878 3.4842 148 108 82
-0.1024 -0.4781 3.4148 107 64 32
-0.0864 -0.4840 3.4574 110 72 49
-0.0686 -0.4804 3.4313 91 53 30
-0.0513 -0.4790 3.4215 102 57 26
-0.0343 -0.4803 3.4304 107 57 20
-0.0169 -0.4723 3.3736 126 74 34
0.0000 -0.4635 3.3110 136 87 47
0.0174 -0.4863 3.4738 174 130 103
0.0344 -0.4821 3.4433 160 119 97
0.0523 -0.4884 3.4887 159 124 104
0.0687 -0.4807 3.4335 98 69 51
0.0877 -0.4913 3.5093 133 106 89
0.1017 -0.4748 3.3911 121 89 68
0.1174 -0.4697 3.3550 99 62 36
0.1361 -0.4762 3.4015 114 72 47
0.1541 -0.4796 3.4254 130 89 67
0.1705 -0.4774 3.4103 165 124 102
0.1835 -0.4672 3.3373 130 91 60
0.2006 -0.4680 3.3431 151 108 73
0.2156 -0.4644 3.3175 134 85 45
0.2302 -0.4603 3.2880 129 76 36
0.2533 -0.4728 3.3770 144 90 52
0.2638 -0.4616 3.2971 134 84 49
0.2771 -0.4564 3.2597 132 89 57
0.3000 -0.4667 3.3339 112 75 46
0.3202 -0.4719 3.3707 80 46 19
0.3409 -0.4772 3.4085 29 0 0
0.3521 -0.4695 3.3537 81 45 29
0.3676 -0.4679 3.3422 56 18 5
0.3814 -0.4643 3.3162 50 11 0
0.3956 -0.4616 3.2969 73 31 6
0.4112 -0.4606 3.2898 71 26 0
0.4379 -0.4716 3.3683 114 68 19
0.4589 -0.4759 3.3993 121 63 15
0.4794 -0.4794 3.4244 119 58 13
0.4899 -0.4730 3.3784 110 51 9
0.5118 -0.4777 3.4121 98 40 2
0.5341 -0.4824 3.4457 103 47 12
0.5505 -0.4816 3.4403 98 42 9
0.5605 -0.4756 3.3969 100 44 11
0.5751 -0.4736 3.3832 99 43 10
0.5997 -0.4797 3.4266 101 47 13
0.6174 -0.4802 3.4302 122 68 34
0.6379 -0.4828 3.4484 122 66 31
0.6580 -0.4848 3.4631 107 51 14
0.6759 -0.4852 3.4660 98 46 9
0.6967 -0.4877 3.4835 96 50 17
0.7109 -0.4855 3.4678 103 61 36
0.7329 -0.4886 3.4899 86 50 26
0.7467 -0.4862 3.4731 84 54 28
0.7627 -0.4854 3.4669 82 51 23
0.7785 -0.4844 3.4599 72 35 9
0.7994 -0.4866 3.4756 84 44 18
0.8151 -0.4856 3.4684 99 61 38
0.8096 -0.4723 3.3735 85 54 33
0.8192 -0.4681 3.3438 77 54 36
0.8677 -0.4859 3.4707 161 145 129
0.8603 -0.4723 3.3738 83 67 51
0.8978 -0.4834 3.4531 99 86 67
0.9170 -0.4845 3.4605 110 98 82
0.9174 -0.4757 3.3976 138 129 114
0.9484 -0.4828 3.4486 134 126 113
0.9264 -0.4632 3.3086 90 80 70
0.9811 -0.4819 3.4425 50 37 28
1.0088 -0.4870 3.4787 47 33 22
1.0150 -0.4817 3.4406 93 97 98
0.9518 -0.4442 3.1726 26 27 31
0.9899 -0.4544 3.2456 51 36 29
1.0574 -0.4776 3.4111 19 12 0
1.0324 -0.4589 3.2776 14 23 22
1.1014 -0.4818 3.4418 66 73 89
1.0921 -0.4704 3.3602 32 22 23
1.0906 -0.4627 3.3047 125 119 107
1.1486 -0.4800 3.4285 132 116 103
1.1951 -0.4921 3.5149 108 84 72
1.2064 -0.4895 3.4968 143 115 103
1.2183 -0.4873 3.4810 111 79 64
1.2415 -0.4896 3.4972 72 33 18
1.2552 -0.4881 3.4866 89 47 33
1.2735 -0.4885 3.4890 78 41 25
1.2809 -0.4847 3.4618 63 24 9
1.2731 -0.4753 3.3949 135 112 98
1.2781 -0.4709 3.3634 72 56 41
1.2714 -0.4623 3.3024 142 128 117
1.2953 -0.4650 3.3213 154 144 135
1.3494 -0.4783 3.4161 78 67 61
1.3067 -0.4574 3.2668 164 149 142
1.3423 -0.4640 3.3144 105 82 76
1.3918 -0.4752 3.3946 70 41 33
1.4034 -0.4734 3.3816 77 56 53
1.4572 -0.4857 3.4695 69 54 33
1.4384 -0.4738 3.3844 93 76 60
1.4915 -0.4856 3.4686 21 6 0
1.4484 -0.4661 3.3296 96 72 60
1.5395 -0.4898 3.4988 91 63 49
1.5155 -0.4768 3.4055 31 28 19
1.4982 -0.4661 3.3293 25 22 31
1.4678 -0.4516 3.2260 62 55 62
1.4969 -0.4556 3.2540 72 54 54
1.5258 -0.4594 3.2812 164 153 159
1.5382 -0.4582 3.2727 3 5 18
1.5846 -0.4670 3.3359 38 14 2
1.6457 -0.4800 3.4285 126 108 96
1.6845 -0.4862 3.4732 133 111 97
1.6934 -0.4838 3.4559 98 80 70
1.6881 -0.4775 3.4104 161 143 129
1.7464 -0.4890 3.4929 92 74 60
1.6865 -0.4676 3.3397 103 87 74
1.7475 -0.4797 3.4265 116 103 94
1.7943 -0.4878 3.4841 87 74 66
1.8325 -0.4934 3.5240 61 51 42
1.8345 -0.4892 3.4942 26 16 7
1.7874 -0.4721 3.3724 134 121 113
1.8264 -0.4779 3.4138 104 90 79
1.8091 -0.4690 3.3501 110 98 86
1.8515 -0.4756 3.3973 76 72 61
1.8712 -0.4763 3.4022 63 63 55
1.8970 -0.4785 3.4181 59 60 54
1.9562 -0.4891 3.4933 87 83 74
1.9507 -0.4834 3.4526 69 59 49
1.9740 -0.4848 3.4631 97 81 66
2.0166 -0.4910 3.5071 93 85 72
2.0303 -0.4901 3.5005 75 69 57
2.0193 -0.4833 3.4518 114 106 95
2.0605 -0.4889 3.4924 87 77 67
2.0491 -0.4821 3.4439 30 17 8
2.0460 -0.4774 3.4100 94 81 73
2.0650 -0.4779 3.4133 99 88 82
2.1425 -0.4917 3.5123 71 63 60
2.1453 -0.4884 3.4884 67 58 53
2.1443 -0.4842 3.4585 84 75 70
-2.0382 -0.4767 3.2874 117 46 0
-2.1085 -0.4971 3.4285 179 115 69
-2.0925 -0.4974 3.4304 107 39 0
-2.0696 -0.4960 3.4208 130 63 18
-2.0344 -0.4916 3.3907 143 81 22
-1.9430 -0.4735 3.2655 183 116 61
-2.0288 -0.4986 3.4387 94 14 0
-2.0193 -0.5005 3.4517 173 84 24
-1.9576 -0.4894 3.3751 104 20 0
-1.9771 -0.4986 3.4385 202 124 58
-1.9321 -0.4915 3.3896 194 104 18
-1.9216 -0.4976 3.4315 39 18 0
-1.9303 -0.5043 3.4779 62 41 22
-1.9277 -0.5082 3.5049 26 14 2
-1.8830 -0.5010 3.4550 68 51 44
-1.8273 -0.4907 3.3840 76 53 37
-1.8367 -0.4978 3.4331 79 54 32
-1.7884 -0.4893 3.3743 36 19 1
-1.7762 -0.4906 3.3832 108 48 38
-1.7962 -0.5057 3.4878 197 97 0
-1.7325 -0.5024 3.4650 200 99 17
-1.6924 -0.5008 3.4539 191 88 11
-1.6952 -0.5068 3.4952 193 86 16
-1.6030 -0.5053 3.4848 36 7 0
-1.5709 -0.5006 3.4525 41 23 23
-1.4898 -0.4800 3.3107 118 86 73
-1.5380 -0.5011 3.4562 78 40 17
-1.5222 -0.5016 3.4597 106 70 56
-1.4552 -0.4851 3.3453 130 72 35
-1.1837 -0.4401 3.0351 176 121 90
-1.2813 -0.4826 3.3280 57 25 4
-1.3197 -0.5036 3.4728 99 51 29
-1.2868 -0.4976 3.4316 109 56 38
-1.2749 -0.4996 3.4457 143 99 72
-1.0619 -0.4596 3.1699 159 106 74
-1.1327 -0.4977 3.4325 111 64 44
-1.0671 -0.4761 3.2832 117 65 44
-1.0632 -0.4818 3.3225 118 76 54
-0.9397 -0.4619 3.1855 99 28 0
-0.8988 -0.4494 3.0994 155 84 38
-0.9615 -0.4979 3.4338 203 122 66
-0.9482 -0.5000 3.4480 159 67 4
-0.9348 -0.5020 3.4624 194 95 28
-0.9047 -0.4950 3.4141 175 77 6
-0.9008 -0.5024 3.4648 175 81 11
-0.8885 -0.5052 3.4844 170 78 11
-0.8752 -0.5076 3.5008 170 78 11
-0.8548 -0.5059 3.4892 187 94 27
-0.8400 -0.5075 3.5002 193 101 36
-0.8129 -0.5016 3.4591 185 99 40
-0.7771 -0.4899 3.3789 174 95 39
-0.7370 -0.4749 3.2754 151 99 52
-0.7334 -0.4946 3.4110 119 102 82
-0.7200 -0.4972 3.4287 191 175 139
-0.6952 -0.4918 3.3914 181 138 106
-0.6551 -0.4871 3.3594 170 129 77
-0.6188 -0.4722 3.2567 190 133 80
-0.6367 -0.4991 3.4418 92 46 12
-0.6227 -0.5016 3.4595 108 72 46
-0.6022 -0.4990 3.4413 113 79 54
-0.5462 -0.4659 3.2130 137 94 60
-0.5162 -0.4536 3.1284 194 135 91
-0.5413 -0.4905 3.3829 111 41 0
-0.5282 -0.4941 3.4079 112 45 0
-0.5121 -0.4951 3.4142 103 44 10
-0.4941 -0.4941 3.4077 92 36 3
-0.4808 -0.4980 3.4344 108 44 0
-0.4671 -0.5017 3.4601 114 41 0
-0.4218 -0.4704 3.2444 97 54 22
-0.3988 -0.4626 3.1906 135 102 85
-0.3878 -0.4686 3.2317 137 105 80
-0.3808 -0.4801 3.3111 168 120 84
-0.3810 -0.5022 3.4635 98 49 8
-0.3656 -0.5048 3.4815 101 47 9
-0.3497 -0.5071 3.4971 100 42 4
-0.3278 -0.5004 3.4510 103 45 7
-0.3112 -0.5014 3.4578 96 37 0
-0.2967 -0.5062 3.4908 95 33 0
-0.2785 -0.5047 3.4807 81 18 0
-0.2586 -0.5000 3.4482 110 45 5
-0.2417 -0.5007 3.4531 112 47 5
-0.2243 -0.5003 3.4504 117 51 0
-0.2092 -0.5055 3.4864 115 50 0
-0.1912 -0.5041 3.4766 137 74 21
-0.1714 -0.4971 3.4285 111 49 0
-0.1548 -0.4987 3.4394 130 70 20
-0.1366 -0.4951 3.4148 128 70 22
-0.1213 -0.5024 3.4652 108 50 4
-0.1024 -0.4950 3.4135 98 41 0
-0.0866 -0.5024 3.4650 109 45 1
-0.0694 -0.5033 3.4710 120 58 11
-0.0517 -0.5001 3.4492 111 50 5
-0.0341 -0.4952 3.4149 109 53 6
-0.0171 -0.4948 3.4127 102 46 0
0.0000 -0.4952 3.4152 110 49 2
0.0171 -0.4956 3.4179 102 38 0
0.0344 -0.4988 3.4398 126 58 9
0.0516 -0.4992 3.4429 124 57 4
0.0691 -0.5012 3.4567 109 46 0
0.0855 -0.4961 3.4213 120 59 12
0.1016 -0.4913 3.3880 114 52 5
0.1192 -0.4937 3.4047 120 52 3
0.1363 -0.4942 3.4082 121 49 0
0.1530 -0.4930 3.3997 115 45 0
0.1692 -0.4906 3.3837 114 47 2
0.1849 -0.4875 3.3618 117 53 18
0.2012 -0.4863 3.3540 120 56 20
0.2208 -0.4925 3.3966 120 57 13
0.2388 -0.4947 3.4117 138 75 24
0.2551 -0.4931 3.4008 144 77 24
0.2731 -0.4950 3.4134 135 62 7
0.2888 -0.4926 3.3976 148 68 17
0.3032 -0.4885 3.3688 150 68 20
0.3237 -0.4940 3.4069 148 79 20
0.3376 -0.4895 3.3758 154 90 29
0.3578 -0.4941 3.4073 149 82 29
0.3716 -0.4899 3.3785 145 75 26
0.3933 -0.4959 3.4200 153 81 33
0.4114 -0.4971 3.4284 153 80 29
0.4296 -0.4983 3.4365 163 88 33
0.4438 -0.4951 3.4142 176 100 40
0.4638 -0.4982 3.4358 183 104 38
0.4814 -0.4986 3.4388 183 105 41
0.4979 -0.4979 3.4338 181 105 47
0.5103 -0.4933 3.4023 173 100 47
0.5297 -0.4955 3.4175 160 89 37
0.5511 -0.4994 3.4441 159 89 37
0.5714 -0.5021 3.4630 163 92 38
0.5884 -0.5019 3.4615 159 86 31
0.6013 -0.4982 3.4361 142 75 23
0.6180 -0.4978 3.4332 148 85 34
0.6331 -0.4962 3.4222 148 86 39
0.6481 -0.4946 3.4113 148 90 44
0.6640 -0.4937 3.4052 141 84 41
0.6788 -0.4921 3.3940 132 77 38
0.7102 -0.5023 3.4644 125 72 32
0.7268 -0.5018 3.4609 122 70 31
0.7433 -0.5013 3.4574 119 76 34
0.7603 -0.5011 3.4561 110 68 30
0.7837 -0.5051 3.4832 118 73 42
0.8014 -0.5052 3.4843 112 64 41
0.8188 -0.5052 3.4841 103 58 37
0.8360 -0.5051 3.4834 87 49 28
0.8543 -0.5056 3.4871 89 57 32
0.8617 -0.4998 3.4467 72 46 19
0.8485 -0.4825 3.3275 94 72 48
0.8988 -0.5012 3.4569 135 114 93
0.9099 -0.4979 3.4337 106 89 69
0.9413 -0.5055 3.4861 103 90 71
0.9309 -0.4909 3.3852 100 87 70
0.9078 -0.4701 3.2421 105 92 76
0.9740 -0.4956 3.4177 43 29 16
1.0016 -0.5008 3.4537 28 11 1
0.9812 -0.4823 3.3262 89 101 113
0.9538 -0.4610 3.1794 82 103 124
1.0215 -0.4856 3.3491 116 128 140
1.0543 -0.4932 3.4011 151 157 157
1.0505 -0.4835 3.3348 109 122 130
1.0833 -0.4909 3.3853 53 44 47
1.0973 -0.4896 3.3764 41 13 0
1.0869 -0.4776 3.2935 109 91 71
1.1361 -0.4918 3.3915 89 70 53
1.1715 -0.4996 3.4456 102 79 65
1.1867 -0.4987 3.4396 74 46 32
1.1829 -0.4900 3.3796 120 87 72
1.2233 -0.4997 3.4459 37 1 0
1.2133 -0.4887 3.3704 105 68 52
1.2551 -0.4986 3.4386 116 79 61
1.2342 -0.4837 3.3356 62 25 7
1.3148 -0.5084 3.5062 129 108 91
1.3037 -0.4975 3.4308 113 97 82
1.2743 -0.4799 3.3100 122 108 95
1.3462 -0.5005 3.4518 90 76 65
1.3761 -0.5051 3.4837 125 108 98
1.3604 -0.4932 3.4011 72 52 43
1.3560 -0.4855 3.3482 80 56 46
1.3723 -0.4853 3.3470 110 81 73
1.3917 -0.4862 3.3534 110 89 84
1.4583 -0.5035 3.4721 38 23 2
1.4769 -0.5039 3.4750 61 43 23
1.4877 -0.5017 3.4598 55 44 38
1.4680 -0.4893 3.3747 105 85 74
1.5184 -0.5004 3.4509 106 87 72
1.5360 -0.5005 3.4517 28 43 46
1.4903 -0.4802 3.3117 65 85 109
1.4839 -0.4729 3.2613 58 76 96
1.5308 -0.4825 3.3278 35 39 48
1.5603 -0.4865 3.3554 14 23 40
1.5708 -0.4846 3.3421 46 63 83
1.5488 -0.4728 3.2606 106 84 70
1.6600 -0.5015 3.4583 99 83 68
1.6979 -0.5076 3.5008 129 108 89
1.7039 -0.5042 3.4773 117 101 88
1.7210 -0.5041 3.4767 105 87 75
1.7513 -0.5079 3.5027 112 94 82
1.6906 -0.4854 3.3478 86 69 59
1.7584 -0.4999 3.4478 85 72 63
1.7742 -0.4995 3.4451 66 56 47
1.7862 -0.4981 3.4351 77 67 58
1.7604 -0.4862 3.3532 32 22 13
1.8085 -0.4948 3.4122 128 118 109
1.8345 -0.4972 3.4289 87 74 68
1.8111 -0.4863 3.3539 130 115 110
1.8887 -0.5025 3.4656 149 134 127
1.8725 -0.4937 3.4046 76 62 53
1.9400 -0.5069 3.4956 101 87 76
1.9377 -0.5017 3.4601 89 75 66
1.9375 -0.4972 3.4291 102 87 82
1.9700 -0.5012 3.4562 59 45 42
1.9979 -0.5038 3.4746 91 81 72
2.0306 -0.5076 3.5010 82 72 63
1.9974 -0.4951 3.4143 89 79 69
2.0437 -0.5023 3.4639 77 64 55
2.0668 -0.5037 3.4736 70 58 46
2.0544 -0.4965 3.4241 71 59 47
2.0339 -0.4875 3.3619 50 38 26
2.1005 -0.4993 3.4435 82 69 60
2.1392 -0.5044 3.4783 50 38 24
2.1576 -0.5046 3.4799 63 51 35
-2.1827 -0.5238 3.4923 150 80 44
-2.0977 -0.5075 3.3834 108 48 0
-2.0801 -0.5073 3.3823 105 45 0
-2.0746 -0.5101 3.4010 189 108 52
-1.9906 -0.4977 3.3177 199 112 33
-2.0427 -0.5150 3.4331 182 93 13
-2.0000 -0.5085 3.3898 202 94 30
-2.0065 -0.5189 3.4594 176 79 0
-1.8496 -0.4911 3.2737 190 120 68
-1.9403 -0.5197 3.4648 53 24 10
-1.9015 -0.5139 3.4260 85 56 48
-1.9006 -0.5183 3.4556 33 11 14
-1.8859 -0.5191 3.4604 39 18 17
-1.8484 -0.5134 3.4230 73 47 34
-1.8632 -0.5224 3.4827 81 48 31
-1.8150 -0.5137 3.4245 114 87 70
-1.8128 -0.5179 3.4529 99 36 27
-1.7021 -0.5158 3.4386 183 82 0
-1.6858 -0.5161 3.4404 201 96 4
-1.6420 -0.5185 3.4568 200 95 14
-1.6235 -0.5181 3.4542 187 82 0
-1.6014 -0.5222 3.4814 39 10 0
-1.5766 -0.5197 3.4650 40 20 21
-1.5064 -0.5021 3.3476 44 12 0
-1.5167 -0.5112 3.4083 83 45 22
-1.4876 -0.5071 3.3810 88 49 32
-1.4671 -0.5059 3.3726 114 56 19
-1.4509 -0.5061 3.3741 205 109 25
-1.4765 -0.5211 3.4742 203 92 0
-1.4261 -0.5155 3.4364 190 88 0
-1.1841 -0.4554 3.0363 193 133 97
-1.2427 -0.4842 3.2277 54 25 17
-1.2845 -0.5071 3.3804 81 41 29
-1.3023 -0.5209 3.4727 125 78 60
-1.2629 -0.5120 3.4133 106 65 33
-1.2062 -0.5026 3.3505 201 105 28
-1.1998 -0.5142 3.4280 203 109 45
-1.1359 -0.5011 3.3408 203 116 39
-1.1062 -0.5028 3.3521 84 26 4
-1.1032 -0.5092 3.3944 88 38 11
-1.0755 -0.5041 3.3610 101 66 36
-1.0735 -0.5194 3.4629 204 126 62
-1.0300 -0.5065 3.3769 191 111 50
-0.9885 -0.4943 3.2950 205 125 66
-0.9781 -0.4973 3.3156 204 125 66
-0.9406 -0.4865 3.2433 178 100 36
-0.9585 -0.5045 3.3633 165 86 19
-0.9469 -0.5073 3.3819 164 80 10
-0.9365 -0.5108 3.4053 189 97 34
-0.9328 -0.5182 3.4548 198 101 46
-0.8848 -0.5205 3.4699 190 104 43
-0.8633 -0.5180 3.4532 198 113 49
-0.8477 -0.5190 3.4599 201 113 50
-0.8086 -0.5162 3.4410 205 125 64
-0.7948 -0.5184 3.4558 174 99 42
-0.7424 -0.4949 3.2996 160 120 85
-0.7366 -0.5022 3.3481 122 96 73
-0.7151 -0.4989 3.3262 148 135 118
-0.7026 -0.5018 3.3456 160 147 130
-0.7137 -0.5222 3.4814 174 145 129
-0.6758 -0.5069 3.3791 166 137 123
-0.6512 -0.5009 3.3393 179 147 122
-0.6494 -0.5127 3.4179 161 100 55
-0.5996 -0.4862 3.2413 94 48 12
-0.6124 -0.5103 3.4020 112 75 46
-0.5921 -0.5075 3.3834 86 50 18
-0.5631 -0.4969 3.3125 106 57 16
-0.5524 -0.5022 3.3477 194 127 74
-0.5464 -0.5122 3.4149 171 93 31
-0.5308 -0.5137 3.4244 173 94 35
-0.5064 -0.5064 3.3761 163 90 39
-0.4925 -0.5095 3.3965 166 86 37
-0.4731 -0.5069 3.3791 157 80 26
-0.4416 -0.4907 3.2713 132 71 24
-0.4306 -0.4968 3.3121 187 157 129
-0.4352 -0.5222 3.4812 157 135 124
-0.4125 -0.5157 3.4379 189 153 131
-0.3786 -0.4939 3.2926 165 104 59
-0.3682 -0.5021 3.3473 153 82 18
-0.3524 -0.5034 3.3560 149 80 15
-0.3342 -0.5014 3.3424 155 86 21
-0.3180 -0.5022 3.3478 153 82 16
-0.3018 -0.5030 3.3533 160 89 23
-0.2834 -0.5001 3.3337 166 93 25
-0.2697 -0.5057 3.3713 158 84 13
-0.2521 -0.5042 3.3613 165 88 16
-0.2358 -0.5054 3.3690 164 86 14
-0.2210 -0.5101 3.4005 157 88 23
-0.2017 -0.5042 3.3614 164 96 33
-0.1869 -0.5096 3.3973 157 83 18
-0.1704 -0.5112 3.4082 161 84 14
-0.1549 -0.5164 3.4424 165 85 12
-0.1359 -0.5096 3.3971 158 78 5
-0.1185 -0.5079 3.3858 178 100 26
-0.1007 -0.5037 3.3582 163 85 13
-0.0836 -0.5017 3.3445 162 85 7
-0.0665 -0.4986 3.3238 157 81 3
-0.0500 -0.4999 3.3327 163 87 9
-0.0336 -0.5042 3.3614 168 95 18
-0.0169 -0.5066 3.3771 165 91 16
0.0000 -0.5104 3.4029 157 84 7
0.0170 -0.5087 3.3913 174 98 20
0.0337 -0.5057 3.3714 163 87 9
0.0508 -0.5079 3.3857 167 84 6
0.0679 -0.5090 3.3930 173 89 16
0.0848 -0.5091 3.3938 160 80 9
0.1016 -0.5079 3.3860 162 82 13
0.1186 -0.5084 3.3893 157 74 6
0.1356 -0.5084 3.3890 161 74 5
0.1523 -0.5078 3.3851 161 78 12
0.1693 -0.5079 3.3863 155 75 14
0.1865 -0.5086 3.3908 167 83 19
0.2040 -0.5101 3.4005 169 89 20
0.2188 -0.5048 3.3656 179 102 32
0.2382 -0.5104 3.4025 176 104 30
0.2562 -0.5123 3.4155 172 100 26
0.2745 -0.5148 3.4317 178 102 27
0.2902 -0.5121 3.4140 177 95 22
0.3101 -0.5168 3.4454 181 94 23
0.3274 -0.5169 3.4459 190 103 24
0.3490 -0.5236 3.4905 179 92 12
0.3659 -0.5226 3.4843 186 99 22
0.3824 -0.5215 3.4768 194 106 34
0.3959 -0.5163 3.4423 190 101 33
0.4142 -0.5177 3.4514 185 96 30
0.4329 -0.5195 3.4631 191 101 38
0.4499 -0.5192 3.4611 189 99 37
0.4677 -0.5197 3.4645 168 92 30
0.4829 -0.5174 3.4495 173 102 40
0.5021 -0.5194 3.4626 172 98 35
0.5222 -0.5222 3.4811 175 99 37
0.5336 -0.5163 3.4423 170 96 33
0.5468 -0.5127 3.4177 167 96 34
0.5651 -0.5137 3.4250 166 98 37
0.5853 -0.5164 3.4430 164 100 39
0.6011 -0.5152 3.4347 174 99 34
0.6219 -0.5182 3.4548 181 103 41
0.6425 -0.5210 3.4731 176 106 47
0.6614 -0.5222 3.4813 167 102 48
0.6774 -0.5211 3.4740 162 100 51
0.6949 -0.5212 3.4744 155 93 44
0.7062 -0.5168 3.4451 151 87 39
0.7259 -0.5185 3.4569 150 84 32
0.7483 -0.5221 3.4806 134 70 34
0.7682 -0.5238 3.4917 130 71 37
0.7781 -0.5188 3.4584 121 72 31
0.7967 -0.5196 3.4640 114 71 28
0.8145 -0.5199 3.4662 112 73 30
0.8348 -0.5217 3.4782 111 73 37
0.8452 -0.5175 3.4498 102 62 37
0.8661 -0.5197 3.4644 99 56 39
0.8831 -0.5195 3.4630 102 66 42
0.8919 -0.5146 3.4305 89 57 32
0.8853 -0.5011 3.3406 68 40 16
0.9241 -0.5134 3.4225 83 59 35
0.9252 -0.5047 3.3644 143 121 98
0.9126 -0.4889 3.2591 104 83 64
0.9105 -0.4792 3.1947 48 27 10
0.9826 -0.5082 3.3882 45 24 7
1.0047 -0.5109 3.4058 106 96 97
0.9902 -0.4951 3.3005 96 78 66
1.0276 -0.5054 3.3693 88 63 41
1.0598 -0.5128 3.4186 48 20 0
1.0834 -0.5159 3.4393 80 84 95
1.1079 -0.5193 3.4622 59 53 55
1.1100 -0.5123 3.4152 47 25 12
1.0803 -0.4911 3.2737 101 78 62
1.1112 -0.4976 3.3170 133 111 90
1.1780 -0.5197 3.4647 105 80 60
1.1578 -0.5034 3.3558 102 75 54
1.1651 -0.4993 3.3289 82 50 29
1.2272 -0.5185 3.4569 59 24 4
1.2257 -0.5107 3.4047 59 24 4
1.2566 -0.5164 3.4427 69 36 17
1.2401 -0.5028 3.3517 52 21 1
1.3041 -0.5217 3.4777 105 87 65
1.3143 -0.5188 3.4588 85 68 48
1.3145 -0.5121 3.4143 191 172 155
1.3233 -0.5090 3.3932 113 91 77
1.3075 -0.4965 3.3100 109 85 73
1.3213 -0.4955 3.3033 105 81 69
1.3812 -0.5115 3.4103 81 55 42
1.3694 -0.5010 3.3401 45 19 6
1.3906 -0.5026 3.3507 82 62 53
1.4297 -0.5106 3.4040 84 68 53
1.4522 -0.5126 3.4170 70 52 28
1.4832 -0.5174 3.4493 42 31 25
1.4216 -0.4902 3.2679 142 123 116
1.5255 -0.5201 3.4672 114 97 79
1.5129 -0.5100 3.3998 48 66 78
1.5309 -0.5103 3.4020 88 112 140
1.5525 -0.5118 3.4122 73 100 127
1.5442 -0.5035 3.3569 86 107 126
1.5296 -0.4934 3.2895 108 132 158
1.5376 -0.4907 3.2716 61 82 101
1.5571 -0.4917 3.2781 133 120 104
1.6240 -0.5075 3.3833 103 94 79
1.6765 -0.5185 3.4566 90 73 53
1.6763 -0.5131 3.4210 112 99 83
1.7243 -0.5225 3.4835 99 83 70
1.7149 -0.5145 3.4299 64 48 35
1.7219 -0.5115 3.4098 127 113 102
1.7569 -0.5167 3.4449 67 54 46
1.7914 -0.5218 3.4785 85 75 66
1.7853 -0.5150 3.4333 53 44 35
1.7432 -0.4981 3.3204 39 29 20
1.8065 -0.5113 3.4086 116 106 97
1.8500 -0.5187 3.4579 98 84 81
1.8268 -0.5074 3.3830 86 71 68
1.8666 -0.5137 3.4249 105 88 81
1.9041 -0.5193 3.4620 132 114 104
1.9117 -0.5167 3.4445 111 93 83
1.9097 -0.5115 3.4103 134 117 110
1.9344 -0.5135 3.4236 98 84 83
1.9656 -0.5173 3.4485 94 84 85
1.9452 -0.5074 3.3829 93 75 71
2.0031 -0.5181 3.4537 95 78 71
1.9964 -0.5119 3.4127 70 55 48
1.9559 -0.4973 3.3150 92 79 73
1.9598 -0.4941 3.2937 102 92 82
2.0643 -0.5161 3.4405 83 71 59
2.1054 -0.5220 3.4800 95 82 65
2.0420 -0.5021 3.3475 66 51 32
2.0614 -0.5028 3.3518 63 50 31
2.0997 -0.5080 3.3866 113 102 84
-2.1156 -0.5332 3.4399 174 94 21
-2.0496 -0.5208 3.3601 168 66 2
-2.0577 -0.5272 3.4012 182 72 9
-1.9973 -0.5160 3.3288 192 99 29
-2.0100 -0.5236 3.3781 158 76 0
-2.0031 -0.5262 3.3950 183 91 16
-1.9824 -0.5252 3.3887 163 69 0
-1.9993 -0.5343 3.4470 169 71 0
-1.9639 -0.5294 3.4155 182 78 5
-1.9045 -0.5271 3.4009 57 16 0
-1.8789 -0.5247 3.3854 35 8 0
-1.9078 -0.5377 3.4687 29 23 9
-1.8790 -0.5344 3.4477 27 9 5
-1.7979 -0.5161 3.3295 52 28 18
-1.8256 -0.5289 3.4124 74 37 21
-1.8320 -0.5358 3.4565 87 52 33
-1.8208 -0.5376 3.4682 95 37 25
-1.7100 -0.5197 3.3530 202 88 0
-1.6683 -0.5332 3.4398 202 90 6
-1.6325 -0.5272 3.4010 189 79 0
-1.6472 -0.5375 3.4678 201 97 0
-1.5838 -0.5337 3.4431 43 14 0
-1.5654 -0.5333 3.4403 43 22 21
-1.4746 -0.5079 3.2769 42 10 0
-1.5075 -0.5251 3.3876 144 106 83
-1.5001 -0.5284 3.4093 101 56 35
-1.4585 -0.5197 3.3529 169 113 78
-1.4066 -0.5191 3.3491 203 101 1
-1.4099 -0.5330 3.4389 195 95 9
-1.2687 -0.5108 3.2954 35 8 0
-1.2656 -0.5162 3.3306 109 73 41
-1.2655 -0.5231 3.3746 88 43 12
-1.2829 -0.5374 3.4673 96 53 21
-1.0438 -0.4830 3.1159 156 98 50
-1.1460 -0.5383 3.4728 93 39 3
-1.0992 -0.5242 3.3822 85 25 0
-1.0813 -0.5238 3.3792 123 67 34
-1.0273 -0.5136 3.3138 187 117 57
-1.0554 -0.5364 3.4605 162 83 26
-1.0105 -0.5221 3.3682 178 96 38
-1.0085 -0.5299 3.4188 159 75 15
-1.0025 -0.5358 3.4569 145 60 0
-0.9790 -0.5324 3.4350 150 66 0
-0.9474 -0.5245 3.3836 152 68 0
-0.9494 -0.5351 3.4524 182 96 35
-0.9333 -0.5358 3.4567 190 102 52
-0.9127 -0.5338 3.4440 189 104 47
-0.8957 -0.5340 3.4449 182 100 42
-0.8807 -0.5353 3.4536 189 110 54
-0.8685 -0.5385 3.4739 180 103 47
-0.8493 -0.5373 3.4665 183 104 45
-0.8273 -0.5343 3.4473 182 103 44
-0.8050 -0.5310 3.4257 201 126 69
-0.7806 -0.5260 3.3938 170 100 48
-0.7684 -0.5294 3.4153 175 129 103
-0.7550 -0.5319 3.4319 114 73 41
-0.7278 -0.5247 3.3850 142 108 83
-0.7189 -0.5306 3.4234 106 74 61
-0.6917 -0.5230 3.3742 80 43 24
-0.6819 -0.5285 3.4097 99 66 51
-0.6548 -0.5205 3.3580 103 57 41
-0.6122 -0.4995 3.2224 203 121 63
-0.6020 -0.5044 3.2541 89 39 2
-0.6165 -0.5308 3.4248 115 81 54
-0.6008 -0.5322 3.4334 85 48 19
-0.5645 -0.5147 3.3207 92 44 4
-0.5547 -0.5374 3.4669 166 86 27
-0.5312 -0.5312 3.4273 189 105 43
-0.5102 -0.5272 3.4011 201 120 64
-0.4971 -0.5313 3.4279 173 80 21
-0.4713 -0.5218 3.3664 143 67 17
-0.4661 -0.5351 3.4524 186 160 125
-0.4414 -0.5263 3.3957 135 119 103
-0.4294 -0.5324 3.4349 148 127 106
-0.4059 -0.5242 3.3822 196 134 97
-0.3874 -0.5222 3.3688 198 124 63
-0.3794 -0.5346 3.4488 156 82 9
-0.3633 -0.5362 3.4596 173 98 30
-0.3464 -0.5368 3.4635 170 95 28
-0.3291 -0.5370 3.4647 177 100 32
-0.3125 -0.5382 3.4724 172 94 22
-0.2949 -0.5378 3.4698 182 102 29
-0.2778 -0.5383 3.4728 186 104 28
-0.2595 -0.5364 3.4605 184 101 23
-0.2429 -0.5378 3.4696 188 105 25
-0.2259 -0.5387 3.4755 194 103 20
-0.2070 -0.5348 3.4503 194 103 20
-0.1902 -0.5360 3.4582 196 110 27
-0.1727 -0.5355 3.4545 195 110 30
-0.1559 -0.5372 3.4655 194 113 34
-0.1377 -0.5334 3.4415 191 112 33
-0.1215 -0.5379 3.4704 201 123 41
-0.1041 -0.5379 3.4705 197 116 35
-0.0867 -0.5378 3.4698 197 111 28
0.0173 -0.5368 3.4631 203 112 33
0.0345 -0.5348 3.4504 193 108 28
0.0518 -0.5351 3.4523 199 110 26
0.0691 -0.5359 3.4573 202 116 33
0.0863 -0.5353 3.4537 192 107 27
0.1041 -0.5378 3.4698 196 111 31
0.1211 -0.5362 3.4596 194 105 25
0.1387 -0.5375 3.4678 205 112 32
0.1731 -0.5365 3.4610 191 103 29
0.1902 -0.5360 3.4579 190 108 24
0.2071 -0.5349 3.4508 199 114 31
0.2238 -0.5336 3.4426 190 103 26
0.2431 -0.5382 3.4724 179 88 17
0.2583 -0.5338 3.4437 178 89 23
0.2752 -0.5332 3.4401 186 103 37
0.2913 -0.5312 3.4270 173 98 30
0.3021 -0.5204 3.3572 177 109 38
0.3178 -0.5185 3.3450 195 131 83
0.3275 -0.5076 3.2751 192 130 83
0.3907 -0.5266 3.3972 196 123 55
0.5186 -0.5359 3.4571 199 116 46
0.5330 -0.5330 3.4385 185 105 34
0.5545 -0.5371 3.4654 189 109 38
0.5698 -0.5353 3.4534 189 109 36
0.5860 -0.5343 3.4472 185 106 31
0.6006 -0.5320 3.4321 184 107 39
0.6199 -0.5338 3.4440 180 105 40
0.6423 -0.5381 3.4718 181 110 48
0.6559 -0.5351 3.4520 178 109 50
0.6704 -0.5329 3.4380 180 115 61
0.6868 -0.5322 3.4338 185 122 71
0.6980 -0.5278 3.4050 167 105 58
0.7204 -0.5317 3.4306 162 101 56
0.7274 -0.5244 3.3831 157 93 49
0.7471 -0.5264 3.3959 144 81 37
0.7705 -0.5308 3.4243 145 88 43
0.7901 -0.5324 3.4350 126 75 32
0.8086 -0.5333 3.4407 114 66 26
0.8236 -0.5319 3.4315 114 68 32
0.8504 -0.5380 3.4710 115 66 34
0.8614 -0.5341 3.4458 107 57 30
0.8829 -0.5366 3.4622 102 58 29
0.8943 -0.5332 3.4398 102 63 34
0.9091 -0.5317 3.4305 79 42 15
0.9341 -0.5362 3.4595 77 43 16
0.9192 -0.5181 3.3426 70 40 16
0.9067 -0.5019 3.2382 84 56 34
0.9323 -0.5070 3.2712 160 133 112
0.9701 -0.5185 3.3450 141 116 96
0.9505 -0.4994 3.2222 82 75 82
0.9857 -0.5093 3.2856 125 100 78
1.0489 -0.5330 3.4389 145 111 74
1.0399 -0.5199 3.3545 129 86 54
1.0453 -0.5143 3.3184 102 117 138
1.0506 -0.5089 3.2832 33 40 48
1.1117 -0.5302 3.4207 57 50 40
1.1132 -0.5228 3.3732 137 115 101
1.1350 -0.5251 3.3879 104 79 59
1.1129 -0.5074 3.2733 99 73 50
1.1638 -0.5228 3.3732 85 57 35
1.1872 -0.5257 3.3919 112 80 57
1.1984 -0.5232 3.3757 87 52 30
1.2126 -0.5221 3.3684 56 24 3
1.2567 -0.5337 3.4429 76 47 29
1.2013 -0.5032 3.2468 91 66 46
1.2746 -0.5268 3.3989 138 123 102
1.2894 -0.5259 3.3931 117 102 81
1.3079 -0.5266 3.3972 129 110 93
1.3350 -0.5306 3.4231 108 84 72
1.3032 -0.5114 3.2993 124 96 85
1.3455 -0.5214 3.3638 114 87 76
1.3671 -0.5232 3.3757 91 69 56
1.3889 -0.5251 3.3876 73 54 39
1.4144 -0.5283 3.4082 59 41 27
1.4365 -0.5301 3.4201 63 46 39
1.4494 -0.5286 3.4103 72 54 30
1.4888 -0.5367 3.4623 17 7 0
1.4250 -0.5078 3.2760 161 144 136
1.4977 -0.5276 3.4038 117 104 87
1.5202 -0.5295 3.4162 81 102 129
1.5458 -0.5324 3.4350 55 85 121
1.5515 -0.5285 3.4098 112 148 184
1.5777 -0.5316 3.4299 75 110 142
1.5531 -0.5177 3.3400 110 148 185
1.5121 -0.4987 3.2171 70 88 108
1.5748 -0.5139 3.3154 128 116 104
1.6039 -0.5179 3.3414 117 108 93
1.6272 -0.5200 3.3551 117 100 82
1.6478 -0.5212 3.3629 93 77 62
1.6697 -0.5228 3.3731 132 118 105
1.7187 -0.5328 3.4375 74 60 49
1.7363 -0.5329 3.4383 58 45 36
1.7620 -0.5355 3.4549 48 38 29
1.7765 -0.5347 3.4495 63 54 47
1.7420 -0.5193 3.3501 53 44 35
1.6549 -0.4886 3.1522 56 47 38
1.7918 -0.5240 3.3807 123 113 103
1.7926 -0.5194 3.3507 45 32 16
1.8093 -0.5193 3.3506 122 108 95
1.8725 -0.5325 3.4358 92 84 73
1.8799 -0.5298 3.4179 92 88 79
1.8696 -0.5221 3.3686 100 97 92
1.8933 -0.5241 3.3810 133 128 122
1.8940 -0.5196 3.3522 77 70 62
1.9193 -0.5219 3.3671 88 78 68
1.9392 -0.5228 3.3726 82 64 54
1.9824 -0.5298 3.4180 69 50 43
2.0185 -0.5348 3.4504 77 64 58
1.9735 -0.5185 3.3450 66 57 52
1.8322 -0.4773 3.0793 94 87 81
2.0137 -0.5202 3.3561 184 175 166
2.0136 -0.5159 3.3282 171 157 144
2.0392 -0.5182 3.3430 180 163 147
2.0692 -0.5215 3.3645 202 189 181
2.1100 -0.5275 3.4032 126 115 113
-2.1066 -0.5393 3.3705 138 52 0
-2.1279 -0.5491 3.4321 185 107 35
-2.0571 -0.5352 3.3448 135 53 0
-2.0281 -0.5320 3.3248 162 62 0
-1.9951 -0.5276 3.2977 186 74 8
-2.0356 -0.5474 3.4212 184 91 22
-1.8373 -0.5249 3.2808 53 14 0
-1.8951 -0.5463 3.4147 40 14 17
-1.8698 -0.5439 3.3996 48 34 25
-1.8732 -0.5499 3.4370 39 24 17
-1.8271 -0.5414 3.3835 36 17 11
-1.8239 -0.5455 3.4092 64 25 8
-1.8028 -0.5442 3.4015 103 67 41
-1.8118 -0.5522 3.4511 123 74 57
-1.6333 -0.5025 3.1409 170 88 15
-1.7129 -0.5481 3.4258 203 96 18
-1.5601 -0.5426 3.3915 37 6 0
-1.5675 -0.5512 3.4450 54 28 27
-1.4935 -0.5310 3.3190 55 25 14
-1.5249 -0.5483 3.4268 73 35 12
-1.5081 -0.5484 3.4275 108 60 37
-1.4542 -0.5349 3.3430 131 76 45
-1.2738 -0.5294 3.3085 43 7 0
-1.2621 -0.5314 3.3212 114 67 51
-1.2376 -0.5281 3.3003 115 61 33
-1.2565 -0.5434 3.3960 109 61 25
-1.1490 -0.5407 3.3795 189 100 20
-1.0947 -0.5308 3.3173 100 27 0
-0.9917 -0.4882 3.0513 127 63 19
-1.0451 -0.5394 3.3714 173 91 33
-1.0311 -0.5409 3.3806 153 73 10
-1.0329 -0.5509 3.4431 151 71 10
-1.0163 -0.5512 3.4451 169 84 27
-0.9925 -0.5476 3.4223 170 84 27
-0.9644 -0.5414 3.3839 186 100 39
-0.9384 -0.5362 3.3516 178 97 34
-0.9329 -0.5428 3.3925 168 89 30
-0.9074 -0.5377 3.3609 166 91 36
-0.8973 -0.5417 3.3859 171 94 38
-0.8763 -0.5392 3.3702 180 105 50
-0.8768 -0.5502 3.4386 152 82 31
-0.8529 -0.5459 3.4117 161 93 44
-0.8327 -0.5438 3.3986 158 91 39
-0.8197 -0.5465 3.4155 159 92 39
-0.7988 -0.5439 3.3992 159 96 45
-0.7695 -0.5353 3.3456 163 102 55
-0.7657 -0.5445 3.4030 156 114 92
-0.7467 -0.5431 3.3941 148 109 68
-0.7299 -0.5432 3.3948 129 93 59
-0.7103 -0.5412 3.3825 100 65 46
-0.6845 -0.5343 3.3393 128 95 62
-0.6845 -0.5476 3.4225 107 80 53
-0.6692 -0.5491 3.4316 127 86 58
-0.6094 -0.5131 3.2072 194 111 31
-0.5728 -0.4954 3.0962 92 46 10
-0.6062 -0.5389 3.3680 74 45 27
-0.5891 -0.5386 3.3664 83 48 26
-0.5677 -0.5343 3.3395 75 30 0
-0.5669 -0.5497 3.4356 169 111 71
-0.5389 -0.5389 3.3679 194 126 79
-0.5228 -0.5396 3.3727 177 103 54
-0.5172 -0.5516 3.4478 177 103 54
-0.4998 -0.5515 3.4469 163 86 40
-0.4573 -0.5419 3.3871 193 178 159
-0.4437 -0.5461 3.4132 184 178 156
-0.4063 -0.5417 3.3857 189 118 64
-0.3702 -0.5384 3.3652 194 124 55
-0.3601 -0.5487 3.4295 181 102 35
-0.3447 -0.5515 3.4469 171 87 17
-0.3280 -0.5525 3.4530 185 101 29
-0.3097 -0.5506 3.4414 180 94 21
-0.2934 -0.5522 3.4515 190 103 26
-0.2748 -0.5495 3.4346 186 96 18
-0.2589 -0.5523 3.4516 192 101 20
-0.2383 -0.5446 3.4037 201 110 27
-0.2235 -0.5501 3.4382 177 99 25
-0.2005 -0.5347 3.3421 190 121 54
-0.1801 -0.5240 3.2752 166 107 47
-0.1635 -0.5231 3.2691 177 126 69
-0.1465 -0.5211 3.2566 184 132 74
-0.1332 -0.5329 3.3307 179 119 56
-0.1203 -0.5501 3.4381 183 111 35
-0.1033 -0.5510 3.4437 189 107 21
-0.0857 -0.5488 3.4298 195 112 34
-0.0667 -0.5340 3.3373 193 114 47
-0.0326 -0.5217 3.2605 175 109 57
0.0000 -0.5243 3.2771 201 134 81
0.0162 -0.5186 3.2410 199 127 68
0.0331 -0.5290 3.3061 192 114 48
0.0647 -0.5176 3.2348 195 139 78
0.0806 -0.5161 3.2259 191 137 77
0.1159 -0.5297 3.3106 192 127 63
0.1517 -0.5395 3.3719 177 106 40
0.3335 -0.5337 3.3353 195 114 58
0.3733 -0.5429 3.3933 169 101 38
0.3829 -0.5327 3.3292 165 107 44
0.3859 -0.5145 3.2156 164 112 54
0.4006 -0.5127 3.2046 160 112 63
0.4316 -0.5115 3.1967 187 134 90
0.4715 -0.5203 3.2519 169 132 103
0.5632 -0.5462 3.4136 182 146 110
0.5389 -0.5072 3.1700 198 154 109
0.5758 -0.5118 3.1989 196 158 122
0.6170 -0.5337 3.3353 157 108 65
0.6480 -0.5457 3.4103 156 96 44
0.6702 -0.5499 3.4371 170 105 51
0.6781 -0.5425 3.3907 172 107 53
0.7000 -0.5463 3.4146 163 103 53
0.7084 -0.5397 3.3732 168 114 68
0.7386 -0.5497 3.4355 160 107 57
0.7576 -0.5510 3.4438 161 105 56
0.7719 -0.5489 3.4305 162 103 59
0.7880 -0.5482 3.4262 150 88 49
0.8062 -0.5489 3.4305 148 86 49
0.8251 -0.5500 3.4377 134 78 41
0.8388 -0.5478 3.4237 129 77 38
0.8556 -0.5476 3.4224 117 69 29
0.8753 -0.5492 3.4327 110 65 32
0.8994 -0.5535 3.4592 98 53 22
0.9082 -0.5483 3.4272 91 50 22
0.9302 -0.5512 3.4451 86 46 20
0.9483 -0.5517 3.4483 86 52 27
0.9620 -0.5497 3.4358 73 42 21
0.9765 -0.5482 3.4264 67 39 18
0.9523 -0.5254 3.2836 42 15 0
0.9413 -0.5105 3.1909 77 74 81
0.9657 -0.5150 3.2189 130 121 104
1.0386 -0.5449 3.4054 70 63 37
1.0362 -0.5348 3.3426 103 78 56
1.0336 -0.5250 3.2814 83 98 117
1.0588 -0.5294 3.3086 48 44 33
1.1139 -0.5484 3.4275 44 29 6
1.0908 -0.5289 3.3054 96 75 58
1.1167 -0.5334 3.3335 113 87 70
1.0893 -0.5126 3.2039 103 75 54
1.1452 -0.5311 3.3193 87 55 32
1.1975 -0.5475 3.4216 63 27 5
1.2182 -0.5490 3.4315 58 21 2
1.2231 -0.5436 3.3974 68 35 16
1.2461 -0.5462 3.4140 65 36 20
1.1587 -0.5010 3.1315 59 33 20
1.2748 -0.5439 3.3994 121 110 90
1.2710 -0.5352 3.3448 134 123 103
1.2640 -0.5253 3.2830 133 116 100
1.3352 -0.5478 3.4235 145 123 112
1.3095 -0.5304 3.3151 163 138 131
1.3108 -0.5243 3.2769 125 105 96
1.3419 -0.5301 3.3133 106 89 79
1.3559 -0.5291 3.3071 100 88 74
1.3867 -0.5346 3.3415 49 33 17
1.4371 -0.5475 3.4216 48 30 26
1.4636 -0.5510 3.4437 47 29 7
1.4387 -0.5353 3.3458 30 21 12
1.4548 -0.5351 3.3445 159 142 134
1.4852 -0.5401 3.3755 128 116 104
1.4881 -0.5351 3.3441 88 114 151
1.4699 -0.5226 3.2664 66 101 143
1.5068 -0.5299 3.3116 12 49 93
1.5850 -0.5513 3.4456 97 138 184
1.5626 -0.5377 3.3604 96 140 189
1.5528 -0.5286 3.3038 61 72 90
1.5941 -0.5370 3.3560 90 76 67
1.5994 -0.5331 3.3320 144 132 120
1.5694 -0.5177 3.2358 157 138 121
1.6350 -0.5339 3.3367 89 71 59
1.6565 -0.5354 3.3464 99 85 74
1.7097 -0.5471 3.4195 62 49 40
1.7099 -0.5417 3.3859 89 79 70
1.7224 -0.5404 3.3773 48 39 32
1.7572 -0.5459 3.4121 66 57 50
1.7635 -0.5426 3.3913 44 35 26
1.6733 -0.5100 3.1872 53 43 34
1.7618 -0.5319 3.3241 126 116 106
1.8004 -0.5384 3.3653 130 113 95
1.8370 -0.5443 3.4019 54 37 17
1.8366 -0.5392 3.3699 93 76 58
1.8429 -0.5361 3.3508 88 72 56
1.8268 -0.5267 3.2916 101 88 72
1.8998 -0.5428 3.3924 116 103 86
1.8803 -0.5325 3.3279 130 117 100
1.9447 -0.5459 3.4117 83 70 53
1.9376 -0.5392 3.3698 119 103 90
1.9680 -0.5429 3.3931 145 131 122
1.8650 -0.5101 3.1880 88 79 72
1.8827 -0.5106 3.1911 189 184 181
1.8159 -0.4883 3.0520 142 138 137
2.0144 -0.5372 3.3574 117 109 107
1.9831 -0.5245 3.2779 111 100 96
2.0830 -0.5464 3.4148 184 171 165
2.0731 -0.5393 3.3708 90 81 86
2.0903 -0.5394 3.3714 181 174 182
-2.0341 -0.5413 3.2808 163 73 13
-2.0004 -0.5456 3.3064 189 97 10
-1.9670 -0.5455 3.3059 203 101 29
-1.9344 -0.5456 3.3067 182 83 2
-1.9413 -0.5523 3.3471 186 80 2
-1.9453 -0.5582 3.3831 178 63 0
-1.8771 -0.5482 3.3222 202 97 16
-1.7264 -0.5087 3.0829 72 30 6
-1.8987 -0.5645 3.4212 38 19 15
-1.8889 -0.5667 3.4344 25 19 21
-1.8595 -0.5630 3.4119 39 28 22
-1.8356 -0.5609 3.3992 30 15 8
-1.8107 -0.5584 3.3845 89 46 30
-1.8050 -0.5619 3.4056 70 29 1
-1.7891 -0.5623 3.4078 130 88 66
-1.6136 -0.5120 3.1030 142 67 9
-1.7050 -0.5516 3.3431 194 84 0
-1.6601 -0.5648 3.4228 200 90 1
-1.4917 -0.5351 3.2429 29 0 0
-1.5495 -0.5619 3.4055 51 20 15
-1.4835 -0.5440 3.2968 55 23 12
-1.5111 -0.5603 3.3957 109 71 50
-1.4458 -0.5422 3.2860 106 54 30
-1.4284 -0.5418 3.2837 124 73 46
-1.3597 -0.5218 3.1622 185 99 26
-1.3777 -0.5613 3.4017 204 99 8
-1.3049 -0.5592 3.3893 45 2 0
-1.2549 -0.5449 3.3023 133 77 62
-1.2675 -0.5577 3.3800 110 48 25
-1.2671 -0.5650 3.4245 135 78 59
-1.1559 -0.5225 3.1669 199 97 33
-1.2078 -0.5536 3.3549 202 102 17
-1.1221 -0.5527 3.3497 161 77 13
-1.0428 -0.5377 3.2587 170 89 34
-1.0647 -0.5577 3.3802 160 74 15
-1.0471 -0.5574 3.3779 144 63 0
-1.0341 -0.5595 3.3906 137 58 0
-1.0245 -0.5634 3.4148 143 62 0
-1.0095 -0.5646 3.4220 151 66 11
-0.9879 -0.5621 3.4065 150 64 13
